310.0 80.0 85.12
310.0 90.0 85.12
310.0 100.0 85.12
310.0 110.0 85.12
310.0 120.0 85.12
310.0 130.0 85.12
310.0 140.0 85.12
310.0 150.0 85.12
310.0 160.0 85.12
310.0 170.0 85.12
310.0 180.0 85.12
310.0 190.0 85.12
310.0 200.0 85.12
310.0 210.0 85.12
310.0 220.0 85.12
310.0 230.0 85.12
310.0 240.0 85.12
310.0 250.0 85.12
320.0 -250.0 84.64
320.0 -240.0 84.64
320.0 -230.0 84.64
320.0 -220.0 84.64
320.0 -210.0 84.64
320.0 -200.0 84.64
320.0 -190.0 84.64
320.0 -180.0 84.64
320.0 -170.0 84.64
320.0 -160.0 84.64
320.0 -150.0 84.64
320.0 -140.0 84.64
320.0 -130.0 84.64
320.0 -120.0 84.64
320.0 -110.0 84.64
320.0 -100.0 84.64
320.0 -90.0 84.64
320.0 -80.0 84.64
320.0 -70.0 84.64
320.0 -60.0 84.64
320.0 -50.0 84.64
320.0 -40.0 84.64
320.0 -30.0 84.64
320.0 -20.0 84.64
320.0 -10.0 84.64
320.0 0.0 84.64
320.0 10.0 84.64
320.0 20.0 84.64
320.0 30.0 84.64
320.0 40.0 84.64
320.0 50.0 84.64
320.0 60.0 84.64
320.0 70.0 84.64
320.0 80.0 84.64
320.0 90.0 84.64
320.0 100.0 84.64
320.0 110.0 84.64
320.0 120.0 84.64
320.0 130.0 84.64
320.0 140.0 84.64
320.0 150.0 84.64
320.0 160.0 84.64
320.0 170.0 84.64
320.0 180.0 84.64
320.0 190.0 84.64
320.0 200.0 84.64
320.0 210.0 84.64
320.0 220.0 84.64
320.0 230.0 84.64
320.0 240.0 84.64
320.0 250.0 84.64
330.0 -250.0 84.16
330.0 -240.0 84.16
330.0 -230.0 84.16
330.0 -220.0 84.16
330.0 -210.0 84.16
330.0 -200.0 84.16
330.0 -190.0 84.16
330.0 -180.0 84.16
330.0 -170.0 84.16
330.0 -160.0 84.16
330.0 -150.0 84.16
330.0 -140.0 84.16
330.0 -130.0 84.16
330.0 -120.0 84.16
330.0 -110.0 84.16
330.0 -100.0 84.16
330.0 -90.0 84.16
330.0 -80.0 84.16
330.0 -70.0 84.16
330.0 -60.0 84.16
330.0 -50.0 84.16
330.0 -40.0 84.16
330.0 -30.0 84.16
330.0 -20.0 84.16
330.0 -10.0 84.16
330.0 0.0 84.16
330.0 10.0 84.16
330.0 20.0 84.16
330.0 30.0 84.16
330.0 40.0 84.16
330.0 50.0 84.16
330.0 60.0 84.16
330.0 70.0 84.16
330.0 80.0 84.16
330.0 90.0 84.16
330.0 100.0 84.16
330.0 110.0 84.16
330.0 120.0 84.16
330.0 130.0 84.16
330.0 140.0 84.16
330.0 150.0 84.16
330.0 160.0 84.16
330.0 170.0 84.16
330.0 180.0 84.16
330.0 190.0 84.16
330.0 200.0 84.16
330.0 210.0 84.16
330.0 220.0 84.16
330.0 230.0 84.16
330.0 240.0 84.16
330.0 250.0 84.16
340.0 -250.0 83.68
340.0 -240.0 83.68
340.0 -230.0 83.68
340.0 -220.0 83.68
340.0 -210.0 83.68
340.0 -200.0 83.68
340.0 -190.0 83.68
340.0 -180.0 83.68
340.0 -170.0 83.68
340.0 -160.0 83.68
340.0 -150.0 83.68
340.0 -140.0 83.68
340.0 -130.0 83.68
340.0 -120.0 83.68
340.0 -110.0 83.68
340.0 -100.0 83.68
340.0 -90.0 83.68
340.0 -80.0 83.68
340.0 -70.0 83.68
340.0 -60.0 83.68
340.0 -50.0 83.68
340.0 -40.0 83.68
340.0 -30.0 83.68
340.0 -20.0 83.68
340.0 -10.0 83.68
340.0 0.0 83.68
340.0 10.0 83.68
340.0 20.0 83.68
340.0 30.0 83.68
340.0 40.0 83.68
340.0 50.0 83.68
340.0 60.0 83.68
340.0 70.0 83.68
340.0 80.0 83.68
340.0 90.0 83.68
340.0 100.0 83.68
340.0 110.0 83.68
340.0 120.0 83.68
340.0 130.0 83.68
340.0 140.0 83.68
340.0 150.0 83.68
340.0 160.0 83.68
340.0 170.0 83.68
340.0 180.0 83.68
340.0 190.0 83.68
340.0 200.0 83.68
340.0 210.0 83.68
340.0 220.0 83.68
340.0 230.0 83.68
340.0 240.0 83.68
340.0 250.0 83.68
350.0 -250.0 83.2
350.0 -240.0 83.2
350.0 -230.0 83.2
350.0 -220.0 83.2
350.0 -210.0 83.2
350.0 -200.0 83.2
350.0 -190.0 83.2
350.0 -180.0 83.2
350.0 -170.0 83.2
350.0 -160.0 83.2
350.0 -150.0 83.2
350.0 -140.0 83.2
350.0 -130.0 83.2
350.0 -120.0 83.2
350.0 -110.0 83.2
350.0 -100.0 83.2
350.0 -90.0 83.2
350.0 -80.0 83.2
350.0 -70.0 83.2
350.0 -60.0 83.2
350.0 -50.0 83.2
350.0 -40.0 83.2
350.0 -30.0 83.2
350.0 -20.0 83.2
350.0 -10.0 83.2
350.0 0.0 83.2
350.0 10.0 83.2
350.0 20.0 83.2
350.0 30.0 83.2
350.0 40.0 83.2
350.0 50.0 83.2
350.0 60.0 83.2
350.0 70.0 83.2
350.0 80.0 83.2
350.0 90.0 83.2
350.0 100.0 83.2
350.0 110.0 83.2
350.0 120.0 83.2
350.0 130.0 83.2
350.0 140.0 83.2
350.0 150.0 83.2
350.0 160.0 83.2
350.0 170.0 83.2
350.0 180.0 83.2
350.0 190.0 83.2
350.0 200.0 83.2
350.0 210.0 83.2
350.0 220.0 83.2
350.0 230.0 83.2
350.0 240.0 83.2
350.0 250.0 83.2
360.0 -250.0 82.72
360.0 -240.0 82.72
360.0 -230.0 82.72
360.0 -220.0 82.72
360.0 -210.0 82.72
360.0 -200.0 82.72
360.0 -190.0 82.72
360.0 -180.0 82.72
360.0 -170.0 82.72
360.0 -160.0 82.72
360.0 -150.0 82.72
360.0 -140.0 82.72
360.0 -130.0 82.72
360.0 -120.0 82.72
360.0 -110.0 82.72
360.0 -100.0 82.72
360.0 -90.0 82.72
360.0 -80.0 82.72
360.0 -70.0 82.72
360.0 -60.0 82.72
360.0 -50.0 82.72
360.0 -40.0 82.72
360.0 -30.0 82.72
360.0 -20.0 82.72
360.0 -10.0 82.72
360.0 0.0 82.72
360.0 10.0 82.72
360.0 20.0 82.72
360.0 30.0 82.72
360.0 40.0 82.72
360.0 50.0 82.72
360.0 60.0 82.72
360.0 70.0 82.72
360.0 80.0 82.72
360.0 90.0 82.72
360.0 100.0 82.72
360.0 110.0 82.72
360.0 120.0 82.72
360.0 130.0 82.72
360.0 140.0 82.72
360.0 150.0 82.72
360.0 160.0 82.72
360.0 170.0 82.72
360.0 180.0 82.72
360.0 190.0 82.72
360.0 200.0 82.72
360.0 210.0 82.72
360.0 220.0 82.72
360.0 230.0 82.72
360.0 240.0 82.72
360.0 250.0 82.72
370.0 -250.0 82.24
370.0 -240.0 82.24
370.0 -230.0 82.24
370.0 -220.0 82.24
370.0 -210.0 82.24
370.0 -200.0 82.24
370.0 -190.0 82.24
370.0 -180.0 82.24
370.0 -170.0 82.24
370.0 -160.0 82.24
370.0 -150.0 82.24
370.0 -140.0 82.24
370.0 -130.0 82.24
370.0 -120.0 82.24
370.0 -110.0 82.24
370.0 -100.0 82.24
370.0 -90.0 82.24
370.0 -80.0 82.24
370.0 -70.0 82.24
370.0 -60.0 82.24
370.0 -50.0 82.24
370.0 -40.0 82.24
370.0 -30.0 82.24
370.0 -20.0 82.24
370.0 -10.0 82.24
370.0 0.0 82.24
370.0 10.0 82.24
370.0 20.0 82.24
370.0 30.0 82.24
370.0 40.0 82.24
370.0 50.0 82.24
370.0 60.0 82.24
370.0 70.0 82.24
370.0 80.0 82.24
370.0 90.0 82.24
370.0 100.0 82.24
370.0 110.0 82.24
370.0 120.0 82.24
370.0 130.0 82.24
370.0 140.0 82.24
370.0 150.0 82.24
370.0 160.0 82.24
370.0 170.0 82.24
370.0 180.0 82.24
370.0 190.0 82.24
370.0 200.0 82.24
370.0 210.0 82.24
370.0 220.0 82.24
370.0 230.0 82.24
370.0 240.0 82.24
370.0 250.0 82.24
380.0 -250.0 81.76
380.0 -240.0 81.76
380.0 -230.0 81.76
380.0 -220.0 81.76
380.0 -210.0 81.76
380.0 -200.0 81.76
380.0 -190.0 81.76
380.0 -180.0 81.76
380.0 -170.0 81.76
380.0 -160.0 81.76
380.0 -150.0 81.76
380.0 -140.0 81.76
380.0 -130.0 81.76
380.0 -120.0 81.76
380.0 -110.0 81.76
380.0 -100.0 81.76
380.0 -90.0 81.76
380.0 -80.0 81.76
380.0 -70.0 81.76
380.0 -60.0 81.76
380.0 -50.0 81.76
380.0 -40.0 81.76
380.0 -30.0 81.76
380.0 -20.0 81.76
380.0 -10.0 81.76
380.0 0.0 81.76
380.0 10.0 81.76
380.0 20.0 81.76
380.0 30.0 81.76
380.0 40.0 81.76
380.0 50.0 81.76
380.0 60.0 81.76
380.0 70.0 81.76
380.0 80.0 81.76
380.0 90.0 81.76
380.0 100.0 81.76
380.0 110.0 81.76
380.0 120.0 81.76
380.0 130.0 81.76
380.0 140.0 81.76
380.0 150.0 81.76
380.0 160.0 81.76
380.0 170.0 81.76
380.0 180.0 81.76
380.0 190.0 81.76
380.0 200.0 81.76
380.0 210.0 81.76
380.0 220.0 81.76
380.0 230.0 81.76
380.0 240.0 81.76
380.0 250.0 81.76
390.0 -250.0 81.28
390.0 -240.0 81.28
390.0 -230.0 81.28
390.0 -220.0 81.28
390.0 -210.0 81.28
390.0 -200.0 81.28
390.0 -190.0 81.28
390.0 -180.0 81.28
390.0 -170.0 81.28
390.0 -160.0 81.28
390.0 -150.0 81.28
390.0 -140.0 81.28
390.0 -130.0 81.28
390.0 -120.0 81.28
390.0 -110.0 81.28
390.0 -100.0 81.28
390.0 -90.0 81.28
390.0 -80.0 81.28
390.0 -70.0 81.28
390.0 -60.0 81.28
390.0 -50.0 81.28
390.0 -40.0 81.28
390.0 -30.0 81.28
390.0 -20.0 81.28
390.0 -10.0 81.28
390.0 0.0 81.28
390.0 10.0 81.28
390.0 20.0 81.28
390.0 30.0 81.28
390.0 40.0 81.28
390.0 50.0 81.28
390.0 60.0 81.28
390.0 70.0 81.28
390.0 80.0 81.28
390.0 90.0 81.28
390.0 100.0 81.28
390.0 110.0 81.28
390.0 120.0 81.28
390.0 130.0 81.28
390.0 140.0 81.28
390.0 150.0 81.28
390.0 160.0 81.28
390.0 170.0 81.28
390.0 180.0 81.28
390.0 190.0 81.28
390.0 200.0 81.28
390.0 210.0 81.28
390.0 220.0 81.28
390.0 230.0 81.28
390.0 240.0 81.28
390.0 250.0 81.28
400.0 -250.0 80.8
400.0 -240.0 80.8
400.0 -230.0 80.8
400.0 -220.0 80.8
400.0 -210.0 80.8
400.0 -200.0 80.8
400.0 -190.0 80.8
400.0 -180.0 80.8
400.0 -170.0 80.8
400.0 -160.0 80.8
400.0 -150.0 80.8
400.0 -140.0 80.8
400.0 -130.0 80.8
400.0 -120.0 80.8
400.0 -110.0 80.8
400.0 -100.0 80.8
400.0 -90.0 80.8
400.0 -80.0 80.8
400.0 -70.0 80.8
400.0 -60.0 80.8
400.0 -50.0 80.8
400.0 -40.0 80.8
400.0 -30.0 80.8
400.0 -20.0 80.8
400.0 -10.0 80.8
400.0 0.0 80.8
400.0 10.0 80.8
400.0 20.0 80.8
400.0 30.0 80.8
400.0 40.0 80.8
400.0 50.0 80.8
400.0 60.0 80.8
400.0 70.0 80.8
400.0 80.0 80.8
400.0 90.0 80.8
400.0 100.0 80.8
400.0 110.0 80.8
400.0 120.0 80.8
400.0 130.0 80.8
400.0 140.0 80.8
400.0 150.0 80.8
400.0 160.0 80.8
400.0 170.0 80.8
400.0 180.0 80.8
400.0 190.0 80.8
400.0 200.0 80.8
400.0 210.0 80.8
400.0 220.0 80.8
400.0 230.0 80.8
400.0 240.0 80.8
400.0 250.0 80.8
410.0 -250.0 80.32
410.0 -240.0 80.32
410.0 -230.0 80.32
410.0 -220.0 80.32
410.0 -210.0 80.32
410.0 -200.0 80.32
410.0 -190.0 80.32
410.0 -180.0 80.32
410.0 -170.0 80.32
410.0 -160.0 80.32
410.0 -150.0 80.32
410.0 -140.0 80.32
410.0 -130.0 80.32
410.0 -120.0 80.32
410.0 -110.0 80.32
410.0 -100.0 80.32
410.0 -90.0 80.32
410.0 -80.0 80.32
410.0 -70.0 80.32
410.0 -60.0 80.32
410.0 -50.0 80.32
410.0 -40.0 80.32
410.0 -30.0 80.32
410.0 -20.0 80.32
410.0 -10.0 80.32
410.0 0.0 80.32
410.0 10.0 80.32
410.0 20.0 80.32
410.0 30.0 80.32
410.0 40.0 80.32
410.0 50.0 80.32
410.0 60.0 80.32
410.0 70.0 80.32
410.0 80.0 80.32
410.0 90.0 80.32
410.0 100.0 80.32
410.0 110.0 80.32
410.0 120.0 80.32
410.0 130.0 80.32
410.0 140.0 80.32
410.0 150.0 80.32
410.0 160.0 80.32
410.0 170.0 80.32
410.0 180.0 80.32
410.0 190.0 80.32
410.0 200.0 80.32
410.0 210.0 80.32
410.0 220.0 80.32
410.0 230.0 80.32
410.0 240.0 80.32
410.0 250.0 80.32
420.0 -250.0 79.84
420.0 -240.0 79.84
420.0 -230.0 79.84
420.0 -220.0 79.84
420.0 -210.0 79.84
420.0 -200.0 79.84
420.0 -190.0 79.84
420.0 -180.0 79.84
420.0 -170.0 79.84
420.0 -160.0 79.84
420.0 -150.0 79.84
420.0 -140.0 79.84
420.0 -130.0 79.84
420.0 -120.0 79.84
420.0 -110.0 79.84
420.0 -100.0 79.84
420.0 -90.0 79.84
420.0 -80.0 79.84
420.0 -70.0 79.84
420.0 -60.0 79.84
420.0 -50.0 79.84
420.0 -40.0 79.84
420.0 -30.0 79.84
420.0 -20.0 79.84
420.0 -10.0 79.84
420.0 0.0 79.84
420.0 10.0 79.84
420.0 20.0 79.84
420.0 30.0 79.84
420.0 40.0 79.84
420.0 50.0 79.84
420.0 60.0 79.84
420.0 70.0 79.84
420.0 80.0 79.84
420.0 90.0 79.84
420.0 100.0 79.84
420.0 110.0 79.84
420.0 120.0 79.84
420.0 130.0 79.84
420.0 140.0 79.84
420.0 150.0 79.84
420.0 160.0 79.84
420.0 170.0 79.84
420.0 180.0 79.84
420.0 190.0 79.84
420.0 200.0 79.84
420.0 210.0 79.84
420.0 220.0 79.84
420.0 230.0 79.84
420.0 240.0 79.84
420.0 250.0 79.84
430.0 -250.0 79.36
430.0 -240.0 79.36
430.0 -230.0 79.36
430.0 -220.0 79.36
430.0 -210.0 79.36
430.0 -200.0 79.36
430.0 -190.0 79.36
430.0 -180.0 79.36
430.0 -170.0 79.36
430.0 -160.0 79.36
430.0 -150.0 79.36
430.0 -140.0 79.36
430.0 -130.0 79.36
430.0 -120.0 79.36
430.0 -110.0 79.36
430.0 -100.0 79.36
430.0 -90.0 79.36
430.0 -80.0 79.36
430.0 -70.0 79.36
430.0 -60.0 79.36
430.0 -50.0 79.36
430.0 -40.0 79.36
430.0 -30.0 79.36
430.0 -20.0 79.36
430.0 -10.0 79.36
430.0 0.0 79.36
430.0 10.0 79.36
430.0 20.0 79.36
430.0 30.0 79.36
430.0 40.0 79.36
430.0 50.0 79.36
430.0 60.0 79.36
430.0 70.0 79.36
430.0 80.0 79.36
430.0 90.0 79.36
430.0 100.0 79.36
430.0 110.0 79.36
430.0 120.0 79.36
430.0 130.0 79.36
430.0 140.0 79.36
430.0 150.0 79.36
430.0 160.0 79.36
430.0 170.0 79.36
430.0 180.0 79.36
430.0 190.0 79.36
430.0 200.0 79.36
430.0 210.0 79.36
430.0 220.0 79.36
430.0 230.0 79.36
430.0 240.0 79.36
430.0 250.0 79.36
440.0 -250.0 78.88
440.0 -240.0 78.88
440.0 -230.0 78.88
440.0 -220.0 78.88
440.0 -210.0 78.88
440.0 -200.0 78.88
440.0 -190.0 78.88
440.0 -180.0 78.88
440.0 -170.0 78.88
440.0 -160.0 78.88
440.0 -150.0 78.88
440.0 -140.0 78.88
440.0 -130.0 78.88
440.0 -120.0 78.88
440.0 -110.0 78.88
440.0 -100.0 78.88
440.0 -90.0 78.88
440.0 -80.0 78.88
440.0 -70.0 78.88
440.0 -60.0 78.88
440.0 -50.0 78.88
440.0 -40.0 78.88
440.0 -30.0 78.88
440.0 -20.0 78.88
440.0 -10.0 78.88
440.0 0.0 78.88
440.0 10.0 78.88
440.0 20.0 78.88
440.0 30.0 78.88
440.0 40.0 78.88
440.0 50.0 78.88
440.0 60.0 78.88
440.0 70.0 78.88
440.0 80.0 78.88
440.0 90.0 78.88
440.0 100.0 78.88
440.0 110.0 78.88
440.0 120.0 78.88
440.0 130.0 78.88
440.0 140.0 78.88
440.0 150.0 78.88
440.0 160.0 78.88
440.0 170.0 78.88
440.0 180.0 78.88
440.0 190.0 78.88
440.0 200.0 78.88
440.0 210.0 78.88
440.0 220.0 78.88
440.0 230.0 78.88
440.0 240.0 78.88
440.0 250.0 78.88
450.0 -250.0 78.4
450.0 -240.0 78.4
450.0 -230.0 78.4
450.0 -220.0 78.4
450.0 -210.0 78.4
450.0 -200.0 78.4
450.0 -190.0 78.4
450.0 -180.0 78.4
450.0 -170.0 78.4
450.0 -160.0 78.4
450.0 -150.0 78.4
450.0 -140.0 78.4
450.0 -130.0 78.4
450.0 -120.0 78.4
450.0 -110.0 78.4
450.0 -100.0 78.4
450.0 -90.0 78.4
450.0 -80.0 78.4
450.0 -70.0 78.4
450.0 -60.0 78.4
450.0 -50.0 78.4
450.0 -40.0 78.4
450.0 -30.0 78.4
450.0 -20.0 78.4
450.0 -10.0 78.4
450.0 0.0 78.4
450.0 10.0 78.4
450.0 20.0 78.4
450.0 30.0 78.4
450.0 40.0 78.4
450.0 50.0 78.4
450.0 60.0 78.4
450.0 70.0 78.4
450.0 80.0 78.4
450.0 90.0 78.4
450.0 100.0 78.4
450.0 110.0 78.4
450.0 120.0 78.4
450.0 130.0 78.4
450.0 140.0 78.4
450.0 150.0 78.4
450.0 160.0 78.4
450.0 170.0 78.4
450.0 180.0 78.4
450.0 190.0 78.4
450.0 200.0 78.4
450.0 210.0 78.4
450.0 220.0 78.4
450.0 230.0 78.4
450.0 240.0 78.4
450.0 250.0 78.4
460.0 -250.0 77.92
460.0 -240.0 77.92
460.0 -230.0 77.92
460.0 -220.0 77.92
460.0 -210.0 77.92
460.0 -200.0 77.92
460.0 -190.0 77.92
460.0 -180.0 77.92
460.0 -170.0 77.92
460.0 -160.0 77.92
460.0 -150.0 77.92
460.0 -140.0 77.92
460.0 -130.0 77.92
460.0 -120.0 77.92
460.0 -110.0 77.92
460.0 -100.0 77.92
460.0 -90.0 77.92
460.0 -80.0 77.92
460.0 -70.0 77.92
460.0 -60.0 77.92
460.0 -50.0 77.92
460.0 -40.0 77.92
460.0 -30.0 77.92
460.0 -20.0 77.92
460.0 -10.0 77.92
460.0 0.0 77.92
460.0 10.0 77.92
460.0 20.0 77.92
460.0 30.0 77.92
460.0 40.0 77.92
460.0 50.0 77.92
460.0 60.0 77.92
460.0 70.0 77.92
460.0 80.0 77.92
460.0 90.0 77.92
460.0 100.0 77.92
460.0 110.0 77.92
460.0 120.0 77.92
460.0 130.0 77.92
460.0 140.0 77.92
460.0 150.0 77.92
460.0 160.0 77.92
460.0 170.0 77.92
460.0 180.0 77.92
460.0 190.0 77.92
460.0 200.0 77.92
460.0 210.0 77.92
460.0 220.0 77.92
460.0 230.0 77.92
460.0 240.0 77.92
460.0 250.0 77.92
470.0 -250.0 77.44
470.0 -240.0 77.44
470.0 -230.0 77.44
470.0 -220.0 77.44
470.0 -210.0 77.44
470.0 -200.0 77.44
470.0 -190.0 77.44
470.0 -180.0 77.44
470.0 -170.0 77.44
470.0 -160.0 77.44
470.0 -150.0 77.44
470.0 -140.0 77.44
470.0 -130.0 77.44
470.0 -120.0 77.44
470.0 -110.0 77.44
470.0 -100.0 77.44
470.0 -90.0 77.44
470.0 -80.0 77.44
470.0 -70.0 77.44
470.0 -60.0 77.44
470.0 -50.0 77.44
470.0 -40.0 77.44
470.0 -30.0 77.44
470.0 -20.0 77.44
470.0 -10.0 77.44
470.0 0.0 77.44
470.0 10.0 77.44
470.0 20.0 77.44
470.0 30.0 77.44
470.0 40.0 77.44
470.0 50.0 77.44
470.0 60.0 77.44
470.0 70.0 77.44
470.0 80.0 77.44
470.0 90.0 77.44
470.0 100.0 77.44
470.0 110.0 77.44
470.0 120.0 77.44
470.0 130.0 77.44
470.0 140.0 77.44
470.0 150.0 77.44
470.0 160.0 77.44
470.0 170.0 77.44
470.0 180.0 77.44
470.0 190.0 77.44
470.0 200.0 77.44
470.0 210.0 77.44
470.0 220.0 77.44
470.0 230.0 77.44
470.0 240.0 77.44
470.0 250.0 77.44
480.0 -250.0 76.96
480.0 -240.0 76.96
480.0 -230.0 76.96
480.0 -220.0 76.96
480.0 -210.0 76.96
480.0 -200.0 76.96
480.0 -190.0 76.96
480.0 -180.0 76.96
480.0 -170.0 76.96
480.0 -160.0 76.96
480.0 -150.0 76.96
480.0 -140.0 76.96
480.0 -130.0 76.96
480.0 -120.0 76.96
480.0 -110.0 76.96
480.0 -100.0 76.96
480.0 -90.0 76.96
480.0 -80.0 76.96
480.0 -70.0 76.96
480.0 -60.0 76.96
480.0 -50.0 76.96
480.0 -40.0 76.96
480.0 -30.0 76.96
480.0 -20.0 76.96
480.0 -10.0 76.96
480.0 0.0 76.96
480.0 10.0 76.96
480.0 20.0 76.96
480.0 30.0 76.96
480.0 40.0 76.96
480.0 50.0 76.96
480.0 60.0 76.96
480.0 70.0 76.96
480.0 80.0 76.96
480.0 90.0 76.96
480.0 100.0 76.96
480.0 110.0 76.96
480.0 120.0 76.96
480.0 130.0 76.96
480.0 140.0 76.96
480.0 150.0 76.96
480.0 160.0 76.96
480.0 170.0 76.96
480.0 180.0 76.96
480.0 190.0 76.96
480.0 200.0 76.96
480.0 210.0 76.96
480.0 220.0 76.96
480.0 230.0 76.96
480.0 240.0 76.96
480.0 250.0 76.96
490.0 -250.0 76.48
490.0 -240.0 76.48
490.0 -230.0 76.48
490.0 -220.0 76.48
490.0 -210.0 76.48
490.0 -200.0 76.48
490.0 -190.0 76.48
490.0 -180.0 76.48
490.0 -170.0 76.48
490.0 -160.0 76.48
490.0 -150.0 76.48
490.0 -140.0 76.48
490.0 -130.0 76.48
490.0 -120.0 76.48
490.0 -110.0 76.48
490.0 -100.0 76.48
490.0 -90.0 76.48
490.0 -80.0 76.48
490.0 -70.0 76.48
490.0 -60.0 76.48
490.0 -50.0 76.48
490.0 -40.0 76.48
490.0 -30.0 76.48
490.0 -20.0 76.48
490.0 -10.0 76.48
490.0 0.0 76.48
490.0 10.0 76.48
490.0 20.0 76.48
490.0 30.0 76.48
490.0 40.0 76.48
490.0 50.0 76.48
490.0 60.0 76.48
490.0 70.0 76.48
490.0 80.0 76.48
490.0 90.0 76.48
490.0 100.0 76.48
490.0 110.0 76.48
490.0 120.0 76.48
490.0 130.0 76.48
490.0 140.0 76.48
490.0 150.0 76.48
490.0 160.0 76.48
490.0 170.0 76.48
490.0 180.0 76.48
490.0 190.0 76.48
490.0 200.0 76.48
490.0 210.0 76.48
490.0 220.0 76.48
490.0 230.0 76.48
490.0 240.0 76.48
490.0 250.0 76.48
500.0 -250.0 76.0
500.0 -240.0 76.0
500.0 -230.0 76.0
500.0 -220.0 76.0
500.0 -210.0 76.0
500.0 -200.0 76.0
500.0 -190.0 76.0
500.0 -180.0 76.0
500.0 -170.0 76.0
500.0 -160.0 76.0
500.0 -150.0 76.0
500.0 -140.0 76.0
500.0 -130.0 76.0
500.0 -120.0 76.0
500.0 -110.0 76.0
500.0 -100.0 76.0
500.0 -90.0 76.0
500.0 -80.0 76.0
500.0 -70.0 76.0
500.0 -60.0 76.0
500.0 -50.0 76.0
500.0 -40.0 76.0
500.0 -30.0 76.0
500.0 -20.0 76.0
500.0 -10.0 76.0
500.0 0.0 76.0
500.0 10.0 76.0
500.0 20.0 76.0
500.0 30.0 76.0
500.0 40.0 76.0
500.0 50.0 76.0
500.0 60.0 76.0
500.0 70.0 76.0
500.0 80.0 76.0
500.0 90.0 76.0
500.0 100.0 76.0
500.0 110.0 76.0
500.0 120.0 76.0
500.0 130.0 76.0
500.0 140.0 76.0
500.0 150.0 76.0
500.0 160.0 76.0
500.0 170.0 76.0
500.0 180.0 76.0
500.0 190.0 76.0
500.0 200.0 76.0
500.0 210.0 76.0
500.0 220.0 76.0
500.0 230.0 76.0
500.0 240.0 76.0
500.0 250.0 76.0
510.0 -250.0 75.52
510.0 -240.0 75.52
510.0 -230.0 75.52
510.0 -220.0 75.52
510.0 -210.0 75.52
510.0 -200.0 75.52
510.0 -190.0 75.52
510.0 -180.0 75.52
510.0 -170.0 75.52
510.0 -160.0 75.52
510.0 -150.0 75.52
510.0 -140.0 75.52
510.0 -130.0 75.52
510.0 -120.0 75.52
510.0 -110.0 75.52
510.0 -100.0 75.52
510.0 -90.0 75.52
510.0 -80.0 75.52
510.0 -70.0 75.52
510.0 -60.0 75.52
510.0 -50.0 75.52
510.0 -40.0 75.52
510.0 -30.0 75.52
510.0 -20.0 75.52
510.0 -10.0 75.52
510.0 0.0 75.52
510.0 10.0 75.52
510.0 20.0 75.52
510.0 30.0 75.52
510.0 40.0 75.52
510.0 50.0 75.52
510.0 60.0 75.52
510.0 70.0 75.52
510.0 80.0 75.52
510.0 90.0 75.52
510.0 100.0 75.52
510.0 110.0 75.52
510.0 120.0 75.52
510.0 130.0 75.52
510.0 140.0 75.52
510.0 150.0 75.52
510.0 160.0 75.52
510.0 170.0 75.52
510.0 180.0 75.52
510.0 190.0 75.52
510.0 200.0 75.52
510.0 210.0 75.52
510.0 220.0 75.52
510.0 230.0 75.52
510.0 240.0 75.52
510.0 250.0 75.52
520.0 -250.0 75.04
520.0 -240.0 75.04
520.0 -230.0 75.04
520.0 -220.0 75.04
520.0 -210.0 75.04
520.0 -200.0 75.04
520.0 -190.0 75.04
520.0 -180.0 75.04
520.0 -170.0 75.04
520.0 -160.0 75.04
520.0 -150.0 75.04
520.0 -140.0 75.04
520.0 -130.0 75.04
520.0 -120.0 75.04
520.0 -110.0 75.04
520.0 -100.0 75.04
520.0 -90.0 75.04
520.0 -80.0 75.04
520.0 -70.0 75.04
520.0 -60.0 75.04
520.0 -50.0 75.04
520.0 -40.0 75.04
520.0 -30.0 75.04
520.0 -20.0 75.04
520.0 -10.0 75.04
520.0 0.0 75.04
520.0 10.0 75.04
520.0 20.0 75.04
520.0 30.0 75.04
520.0 40.0 75.04
520.0 50.0 75.04
520.0 60.0 75.04
520.0 70.0 75.04
520.0 80.0 75.04
520.0 90.0 75.04
520.0 100.0 75.04
520.0 110.0 75.04
520.0 120.0 75.04
520.0 130.0 75.04
520.0 140.0 75.04
520.0 150.0 75.04
520.0 160.0 75.04
520.0 170.0 75.04
520.0 180.0 75.04
520.0 190.0 75.04
520.0 200.0 75.04
520.0 210.0 75.04
520.0 220.0 75.04
520.0 230.0 75.04
520.0 240.0 75.04
520.0 250.0 75.04
530.0 -250.0 74.56
530.0 -240.0 74.56
530.0 -230.0 74.56
530.0 -220.0 74.56
530.0 -210.0 74.56
530.0 -200.0 74.56
530.0 -190.0 74.56
530.0 -180.0 74.56
530.0 -170.0 74.56
530.0 -160.0 74.56
530.0 -150.0 74.56
530.0 -140.0 74.56
530.0 -130.0 74.56
530.0 -120.0 74.56
530.0 -110.0 74.56
530.0 -100.0 74.56
530.0 -90.0 74.56
530.0 -80.0 74.56
530.0 -70.0 74.56
530.0 -60.0 74.56
530.0 -50.0 74.56
530.0 -40.0 74.56
530.0 -30.0 74.56
530.0 -20.0 74.56
530.0 -10.0 74.56
530.0 0.0 74.56
530.0 10.0 74.56
530.0 20.0 74.56
530.0 30.0 74.56
530.0 40.0 74.56
530.0 50.0 74.56
530.0 60.0 74.56
530.0 70.0 74.56
530.0 80.0 74.56
530.0 90.0 74.56
530.0 100.0 74.56
530.0 110.0 74.56
530.0 120.0 74.56
530.0 130.0 74.56
530.0 140.0 74.56
530.0 150.0 74.56
530.0 160.0 74.56
530.0 170.0 74.56
530.0 180.0 74.56
530.0 190.0 74.56
530.0 200.0 74.56
530.0 210.0 74.56
530.0 220.0 74.56
530.0 230.0 74.56
530.0 240.0 74.56
530.0 250.0 74.56
540.0 -250.0 74.08
540.0 -240.0 74.08
540.0 -230.0 74.08
540.0 -220.0 74.08
540.0 -210.0 74.08
540.0 -200.0 74.08
540.0 -190.0 74.08
540.0 -180.0 74.08
540.0 -170.0 74.08
540.0 -160.0 74.08
540.0 -150.0 74.08
540.0 -140.0 74.08
540.0 -130.0 74.08
540.0 -120.0 74.08
540.0 -110.0 74.08
540.0 -100.0 74.08
540.0 -90.0 74.08
540.0 -80.0 74.08
540.0 -70.0 74.08
540.0 -60.0 74.08
540.0 -50.0 74.08
540.0 -40.0 74.08
540.0 -30.0 74.08
540.0 -20.0 74.08
540.0 -10.0 74.08
540.0 0.0 74.08
540.0 10.0 74.08
540.0 20.0 74.08
540.0 30.0 74.08
540.0 40.0 74.08
540.0 50.0 74.08
540.0 60.0 74.08
540.0 70.0 74.08
540.0 80.0 74.08
540.0 90.0 74.08
540.0 100.0 74.08
540.0 110.0 74.08
540.0 120.0 74.08
540.0 130.0 74.08
540.0 140.0 74.08
540.0 150.0 74.08
540.0 160.0 74.08
540.0 170.0 74.08
540.0 180.0 74.08
540.0 190.0 74.08
540.0 200.0 74.08
540.0 210.0 74.08
540.0 220.0 74.08
540.0 230.0 74.08
540.0 240.0 74.08
540.0 250.0 74.08
550.0 -250.0 73.6
550.0 -240.0 73.6
550.0 -230.0 73.6
550.0 -220.0 73.6
550.0 -210.0 73.6
550.0 -200.0 73.6
550.0 -190.0 73.6
550.0 -180.0 73.6
550.0 -170.0 73.6
550.0 -160.0 73.6
550.0 -150.0 73.6
550.0 -140.0 73.6
550.0 -130.0 73.6
550.0 -120.0 73.6
550.0 -110.0 73.6
550.0 -100.0 73.6
550.0 -90.0 73.6
550.0 -80.0 73.6
550.0 -70.0 73.6
550.0 -60.0 73.6
550.0 -50.0 73.6
550.0 -40.0 73.6
550.0 -30.0 73.6
550.0 -20.0 73.6
550.0 -10.0 73.6
550.0 0.0 73.6
550.0 10.0 73.6
550.0 20.0 73.6
550.0 30.0 73.6
550.0 40.0 73.6
550.0 50.0 73.6
550.0 60.0 73.6
550.0 70.0 73.6
550.0 80.0 73.6
550.0 90.0 73.6
550.0 100.0 73.6
550.0 110.0 73.6
550.0 120.0 73.6
550.0 130.0 73.6
550.0 140.0 73.6
550.0 150.0 73.6
550.0 160.0 73.6
550.0 170.0 73.6
550.0 180.0 73.6
550.0 190.0 73.6
550.0 200.0 73.6
550.0 210.0 73.6
550.0 220.0 73.6
550.0 230.0 73.6
550.0 240.0 73.6
550.0 250.0 73.6
560.0 -250.0 73.12
560.0 -240.0 73.12
560.0 -230.0 73.12
560.0 -220.0 73.12
560.0 -210.0 73.12
560.0 -200.0 73.12
560.0 -190.0 73.12
560.0 -180.0 73.12
560.0 -170.0 73.12
560.0 -160.0 73.12
560.0 -150.0 73.12
560.0 -140.0 73.12
560.0 -130.0 73.12
560.0 -120.0 73.12
560.0 -110.0 73.12
560.0 -100.0 73.12
560.0 -90.0 73.12
560.0 -80.0 73.12
560.0 -70.0 73.12
560.0 -60.0 73.12
560.0 -50.0 73.12
560.0 -40.0 73.12
560.0 -30.0 73.12
560.0 -20.0 73.12
560.0 -10.0 73.12
560.0 0.0 73.12
560.0 10.0 73.12
560.0 20.0 73.12
560.0 30.0 73.12
560.0 40.0 73.12
560.0 50.0 73.12
560.0 60.0 73.12
560.0 70.0 73.12
560.0 80.0 73.12
560.0 90.0 73.12
560.0 100.0 73.12
560.0 110.0 73.12
560.0 120.0 73.12
560.0 130.0 73.12
560.0 140.0 73.12
560.0 150.0 73.12
560.0 160.0 73.12
560.0 170.0 73.12
560.0 180.0 73.12
560.0 190.0 73.12
560.0 200.0 73.12
560.0 210.0 73.12
560.0 220.0 73.12
560.0 230.0 73.12
560.0 240.0 73.12
560.0 250.0 73.12
570.0 -250.0 72.64
570.0 -240.0 72.64
570.0 -230.0 72.64
570.0 -220.0 72.64
570.0 -210.0 72.64
570.0 -200.0 72.64
570.0 -190.0 72.64
570.0 -180.0 72.64
570.0 -170.0 72.64
570.0 -160.0 72.64
570.0 -150.0 72.64
570.0 -140.0 72.64
570.0 -130.0 72.64
570.0 -120.0 72.64
570.0 -110.0 72.64
570.0 -100.0 72.64
570.0 -90.0 72.64
570.0 -80.0 72.64
570.0 -70.0 72.64
570.0 -60.0 72.64
570.0 -50.0 72.64
570.0 -40.0 72.64
570.0 -30.0 72.64
570.0 -20.0 72.64
570.0 -10.0 72.64
570.0 0.0 72.64
570.0 10.0 72.64
570.0 20.0 72.64
570.0 30.0 72.64
570.0 40.0 72.64
570.0 50.0 72.64
570.0 60.0 72.64
570.0 70.0 72.64
570.0 80.0 72.64
570.0 90.0 72.64
570.0 100.0 72.64
570.0 110.0 72.64
570.0 120.0 72.64
570.0 130.0 72.64
570.0 140.0 72.64
570.0 150.0 72.64
570.0 160.0 72.64
570.0 170.0 72.64
570.0 180.0 72.64
570.0 190.0 72.64
570.0 200.0 72.64
570.0 210.0 72.64
570.0 220.0 72.64
570.0 230.0 72.64
570.0 240.0 72.64
570.0 250.0 72.64
580.0 -250.0 72.16
580.0 -240.0 72.16
580.0 -230.0 72.16
580.0 -220.0 72.16
580.0 -210.0 72.16
580.0 -200.0 72.16
580.0 -190.0 72.16
580.0 -180.0 72.16
580.0 -170.0 72.16
580.0 -160.0 72.16
580.0 -150.0 72.16
580.0 -140.0 72.16
580.0 -130.0 72.16
580.0 -120.0 72.16
580.0 -110.0 72.16
580.0 -100.0 72.16
580.0 -90.0 72.16
580.0 -80.0 72.16
580.0 -70.0 72.16
580.0 -60.0 72.16
580.0 -50.0 72.16
580.0 -40.0 72.16
580.0 -30.0 72.16
580.0 -20.0 72.16
580.0 -10.0 72.16
580.0 0.0 72.16
580.0 10.0 72.16
580.0 20.0 72.16
580.0 30.0 72.16
580.0 40.0 72.16
580.0 50.0 72.16
580.0 60.0 72.16
580.0 70.0 72.16
580.0 80.0 72.16
580.0 90.0 72.16
580.0 100.0 72.16
580.0 110.0 72.16
580.0 120.0 72.16
580.0 130.0 72.16
580.0 140.0 72.16
580.0 150.0 72.16
580.0 160.0 72.16
580.0 170.0 72.16
580.0 180.0 72.16
580.0 190.0 72.16
580.0 200.0 72.16
580.0 210.0 72.16
580.0 220.0 72.16
580.0 230.0 72.16
580.0 240.0 72.16
580.0 250.0 72.16
590.0 -250.0 71.68
590.0 -240.0 71.68
590.0 -230.0 71.68
590.0 -220.0 71.68
590.0 -210.0 71.68
590.0 -200.0 71.68
590.0 -190.0 71.68
590.0 -180.0 71.68
590.0 -170.0 71.68
590.0 -160.0 71.68
590.0 -150.0 71.68
590.0 -140.0 71.68
590.0 -130.0 71.68
590.0 -120.0 71.68
590.0 -110.0 71.68
590.0 -100.0 71.68
590.0 -90.0 71.68
590.0 -80.0 71.68
590.0 -70.0 71.68
590.0 -60.0 71.68
590.0 -50.0 71.68
590.0 -40.0 71.68
590.0 -30.0 71.68
590.0 -20.0 71.68
590.0 -10.0 71.68
590.0 0.0 71.68
590.0 10.0 71.68
590.0 20.0 71.68
590.0 30.0 71.68
590.0 40.0 71.68
590.0 50.0 71.68
590.0 60.0 71.68
590.0 70.0 71.68
590.0 80.0 71.68
590.0 90.0 71.68
590.0 100.0 71.68
590.0 110.0 71.68
590.0 120.0 71.68
590.0 130.0 71.68
590.0 140.0 71.68
590.0 150.0 71.68
590.0 160.0 71.68
590.0 170.0 71.68
590.0 180.0 71.68
590.0 190.0 71.68
590.0 200.0 71.68
590.0 210.0 71.68
590.0 220.0 71.68
590.0 230.0 71.68
590.0 240.0 71.68
590.0 250.0 71.68
600.0 -250.0 71.2
600.0 -240.0 71.2
600.0 -230.0 71.2
600.0 -220.0 71.2
600.0 -210.0 71.2
600.0 -200.0 71.2
600.0 -190.0 71.2
600.0 -180.0 71.2
600.0 -170.0 71.2
600.0 -160.0 71.2
600.0 -150.0 71.2
600.0 -140.0 71.2
600.0 -130.0 71.2
600.0 -120.0 71.2
600.0 -110.0 71.2
600.0 -100.0 71.2
600.0 -90.0 71.2
600.0 -80.0 71.2
600.0 -70.0 71.2
600.0 -60.0 71.2
600.0 -50.0 71.2
600.0 -40.0 71.2
600.0 -30.0 71.2
600.0 -20.0 71.2
600.0 -10.0 71.2
600.0 0.0 71.2
600.0 10.0 71.2
600.0 20.0 71.2
600.0 30.0 71.2
600.0 40.0 71.2
600.0 50.0 71.2
600.0 60.0 71.2
600.0 70.0 71.2
600.0 80.0 71.2
600.0 90.0 71.2
600.0 100.0 71.2
600.0 110.0 71.2
600.0 120.0 71.2
600.0 130.0 71.2
600.0 140.0 71.2
600.0 150.0 71.2
600.0 160.0 71.2
600.0 170.0 71.2
600.0 180.0 71.2
600.0 190.0 71.2
600.0 200.0 71.2
600.0 210.0 71.2
600.0 220.0 71.2
600.0 230.0 71.2
600.0 240.0 71.2
600.0 250.0 71.2
610.0 -250.0 70.72
610.0 -240.0 70.72
610.0 -230.0 70.72
610.0 -220.0 70.72
610.0 -210.0 70.72
610.0 -200.0 70.72
610.0 -190.0 70.72
610.0 -180.0 70.72
610.0 -170.0 70.72
610.0 -160.0 70.72
610.0 -150.0 70.72
610.0 -140.0 70.72
610.0 -130.0 70.72
610.0 -120.0 70.72
610.0 -110.0 70.72
610.0 -100.0 70.72
610.0 -90.0 70.72
610.0 -80.0 70.72
610.0 -70.0 70.72
610.0 -60.0 70.72
610.0 -50.0 70.72
610.0 -40.0 70.72
610.0 -30.0 70.72
610.0 -20.0 70.72
610.0 -10.0 70.72
610.0 0.0 70.72
610.0 10.0 70.72
610.0 20.0 70.72
610.0 30.0 70.72
610.0 40.0 70.72
610.0 50.0 70.72
610.0 60.0 70.72
610.0 70.0 70.72
610.0 80.0 70.72
610.0 90.0 70.72
610.0 100.0 70.72
610.0 110.0 70.72
610.0 120.0 70.72
610.0 130.0 70.72
610.0 140.0 70.72
610.0 150.0 70.72
610.0 160.0 70.72
610.0 170.0 70.72
610.0 180.0 70.72
610.0 190.0 70.72
610.0 200.0 70.72
610.0 210.0 70.72
610.0 220.0 70.72
610.0 230.0 70.72
610.0 240.0 70.72
610.0 250.0 70.72
620.0 -250.0 70.24
620.0 -240.0 70.24
620.0 -230.0 70.24
620.0 -220.0 70.24
620.0 -210.0 70.24
620.0 -200.0 70.24
620.0 -190.0 70.24
620.0 -180.0 70.24
620.0 -170.0 70.24
620.0 -160.0 70.24
620.0 -150.0 70.24
620.0 -140.0 70.24
620.0 -130.0 70.24
620.0 -120.0 70.24
620.0 -110.0 70.24
620.0 -100.0 70.24
620.0 -90.0 70.24
620.0 -80.0 70.24
620.0 -70.0 70.24
620.0 -60.0 70.24
620.0 -50.0 70.24
620.0 -40.0 70.24
620.0 -30.0 70.24
620.0 -20.0 70.24
620.0 -10.0 70.24
620.0 0.0 70.24
620.0 10.0 70.24
620.0 20.0 70.24
620.0 30.0 70.24
620.0 40.0 70.24
620.0 50.0 70.24
620.0 60.0 70.24
620.0 70.0 70.24
620.0 80.0 70.24
620.0 90.0 70.24
620.0 100.0 70.24
620.0 110.0 70.24
620.0 120.0 70.24
620.0 130.0 70.24
620.0 140.0 70.24
620.0 150.0 70.24
620.0 160.0 70.24
620.0 170.0 70.24
620.0 180.0 70.24
620.0 190.0 70.24
620.0 200.0 70.24
620.0 210.0 70.24
620.0 220.0 70.24
620.0 230.0 70.24
620.0 240.0 70.24
620.0 250.0 70.24
630.0 -250.0 69.76
630.0 -240.0 69.76
630.0 -230.0 69.76
630.0 -220.0 69.76
630.0 -210.0 69.76
630.0 -200.0 69.76
630.0 -190.0 69.76
630.0 -180.0 69.76
630.0 -170.0 69.76
630.0 -160.0 69.76
630.0 -150.0 69.76
630.0 -140.0 69.76
630.0 -130.0 69.76
630.0 -120.0 69.76
630.0 -110.0 69.76
630.0 -100.0 69.76
630.0 -90.0 69.76
630.0 -80.0 69.76
630.0 -70.0 69.76
630.0 -60.0 69.76
630.0 -50.0 69.76
630.0 -40.0 69.76
630.0 -30.0 69.76
630.0 -20.0 69.76
630.0 -10.0 69.76
630.0 0.0 69.76
630.0 10.0 69.76
630.0 20.0 69.76
630.0 30.0 69.76
630.0 40.0 69.76
630.0 50.0 69.76
630.0 60.0 69.76
630.0 70.0 69.76
630.0 80.0 69.76
630.0 90.0 69.76
630.0 100.0 69.76
630.0 110.0 69.76
630.0 120.0 69.76
630.0 130.0 69.76
630.0 140.0 69.76
630.0 150.0 69.76
630.0 160.0 69.76
630.0 170.0 69.76
630.0 180.0 69.76
630.0 190.0 69.76
630.0 200.0 69.76
630.0 210.0 69.76
630.0 220.0 69.76
630.0 230.0 69.76
630.0 240.0 69.76
630.0 250.0 69.76
640.0 -250.0 69.28
640.0 -240.0 69.28
640.0 -230.0 69.28
640.0 -220.0 69.28
640.0 -210.0 69.28
640.0 -200.0 69.28
640.0 -190.0 69.28
640.0 -180.0 69.28
640.0 -170.0 69.28
640.0 -160.0 69.28
640.0 -150.0 69.28
640.0 -140.0 69.28
640.0 -130.0 69.28
640.0 -120.0 69.28
640.0 -110.0 69.28
640.0 -100.0 69.28
640.0 -90.0 69.28
640.0 -80.0 69.28
640.0 -70.0 69.28
640.0 -60.0 69.28
640.0 -50.0 69.28
640.0 -40.0 69.28
640.0 -30.0 69.28
640.0 -20.0 69.28
640.0 -10.0 69.28
640.0 0.0 69.28
640.0 10.0 69.28
640.0 20.0 69.28
640.0 30.0 69.28
640.0 40.0 69.28
640.0 50.0 69.28
640.0 60.0 69.28
640.0 70.0 69.28
640.0 80.0 69.28
640.0 90.0 69.28
640.0 100.0 69.28
640.0 110.0 69.28
640.0 120.0 69.28
640.0 130.0 69.28
640.0 140.0 69.28
640.0 150.0 69.28
640.0 160.0 69.28
640.0 170.0 69.28
640.0 180.0 69.28
640.0 190.0 69.28
640.0 200.0 69.28
640.0 210.0 69.28
640.0 220.0 69.28
640.0 230.0 69.28
640.0 240.0 69.28
640.0 250.0 69.28
650.0 -250.0 68.8
650.0 -240.0 68.8
650.0 -230.0 68.8
650.0 -220.0 68.8
650.0 -210.0 68.8
650.0 -200.0 68.8
650.0 -190.0 68.8
650.0 -180.0 68.8
650.0 -170.0 68.8
650.0 -160.0 68.8
650.0 -150.0 68.8
650.0 -140.0 68.8
650.0 -130.0 68.8
650.0 -120.0 68.8
650.0 -110.0 68.8
650.0 -100.0 68.8
650.0 -90.0 68.8
650.0 -80.0 68.8
650.0 -70.0 68.8
650.0 -60.0 68.8
650.0 -50.0 68.8
650.0 -40.0 68.8
650.0 -30.0 68.8
650.0 -20.0 68.8
650.0 -10.0 68.8
650.0 0.0 68.8
650.0 10.0 68.8
650.0 20.0 68.8
650.0 30.0 68.8
650.0 40.0 68.8
650.0 50.0 68.8
650.0 60.0 68.8
650.0 70.0 68.8
650.0 80.0 68.8
650.0 90.0 68.8
650.0 100.0 68.8
650.0 110.0 68.8
650.0 120.0 68.8
650.0 130.0 68.8
650.0 140.0 68.8
650.0 150.0 68.8
650.0 160.0 68.8
650.0 170.0 68.8
650.0 180.0 68.8
650.0 190.0 68.8
650.0 200.0 68.8
650.0 210.0 68.8
650.0 220.0 68.8
650.0 230.0 68.8
650.0 240.0 68.8
650.0 250.0 68.8
660.0 -250.0 68.32
660.0 -240.0 68.32
660.0 -230.0 68.32
660.0 -220.0 68.32
660.0 -210.0 68.32
660.0 -200.0 68.32
660.0 -190.0 68.32
660.0 -180.0 68.32
660.0 -170.0 68.32
660.0 -160.0 68.32
660.0 -150.0 68.32
660.0 -140.0 68.32
660.0 -130.0 68.32
660.0 -120.0 68.32
660.0 -110.0 68.32
660.0 -100.0 68.32
660.0 -90.0 68.32
660.0 -80.0 68.32
660.0 -70.0 68.32
660.0 -60.0 68.32
660.0 -50.0 68.32
660.0 -40.0 68.32
660.0 -30.0 68.32
660.0 -20.0 68.32
660.0 -10.0 68.32
660.0 0.0 68.32
660.0 10.0 68.32
660.0 20.0 68.32
660.0 30.0 68.32
660.0 40.0 68.32
660.0 50.0 68.32
660.0 60.0 68.32
660.0 70.0 68.32
660.0 80.0 68.32
660.0 90.0 68.32
660.0 100.0 68.32
660.0 110.0 68.32
660.0 120.0 68.32
660.0 130.0 68.32
660.0 140.0 68.32
660.0 150.0 68.32
660.0 160.0 68.32
660.0 170.0 68.32
660.0 180.0 68.32
660.0 190.0 68.32
660.0 200.0 68.32
660.0 210.0 68.32
660.0 220.0 68.32
660.0 230.0 68.32
660.0 240.0 68.32
660.0 250.0 68.32
670.0 -250.0 67.84
670.0 -240.0 67.84
670.0 -230.0 67.84
670.0 -220.0 67.84
670.0 -210.0 67.84
670.0 -200.0 67.84
670.0 -190.0 67.84
670.0 -180.0 67.84
670.0 -170.0 67.84
670.0 -160.0 67.84
670.0 -150.0 67.84
670.0 -140.0 67.84
670.0 -130.0 67.84
670.0 -120.0 67.84
670.0 -110.0 67.84
670.0 -100.0 67.84
670.0 -90.0 67.84
670.0 -80.0 67.84
670.0 -70.0 67.84
670.0 -60.0 67.84
670.0 -50.0 67.84
670.0 -40.0 67.84
670.0 -30.0 67.84
670.0 -20.0 67.84
670.0 -10.0 67.84
670.0 0.0 67.84
670.0 10.0 67.84
670.0 20.0 67.84
670.0 30.0 67.84
670.0 40.0 67.84
670.0 50.0 67.84
670.0 60.0 67.84
670.0 70.0 67.84
670.0 80.0 67.84
670.0 90.0 67.84
670.0 100.0 67.84
670.0 110.0 67.84
670.0 120.0 67.84
670.0 130.0 67.84
670.0 140.0 67.84
670.0 150.0 67.84
670.0 160.0 67.84
670.0 170.0 67.84
670.0 180.0 67.84
670.0 190.0 67.84
670.0 200.0 67.84
670.0 210.0 67.84
670.0 220.0 67.84
670.0 230.0 67.84
670.0 240.0 67.84
670.0 250.0 67.84
680.0 -250.0 67.36
680.0 -240.0 67.36
680.0 -230.0 67.36
680.0 -220.0 67.36
680.0 -210.0 67.36
680.0 -200.0 67.36
680.0 -190.0 67.36
680.0 -180.0 67.36
680.0 -170.0 67.36
680.0 -160.0 67.36
680.0 -150.0 67.36
680.0 -140.0 67.36
680.0 -130.0 67.36
680.0 -120.0 67.36
680.0 -110.0 67.36
680.0 -100.0 67.36
680.0 -90.0 67.36
680.0 -80.0 67.36
680.0 -70.0 67.36
680.0 -60.0 67.36
680.0 -50.0 67.36
680.0 -40.0 67.36
680.0 -30.0 67.36
680.0 -20.0 67.36
680.0 -10.0 67.36
680.0 0.0 67.36
680.0 10.0 67.36
680.0 20.0 67.36
680.0 30.0 67.36
680.0 40.0 67.36
680.0 50.0 67.36
680.0 60.0 67.36
680.0 70.0 67.36
680.0 80.0 67.36
680.0 90.0 67.36
680.0 100.0 67.36
680.0 110.0 67.36
680.0 120.0 67.36
680.0 130.0 67.36
680.0 140.0 67.36
680.0 150.0 67.36
680.0 160.0 67.36
680.0 170.0 67.36
680.0 180.0 67.36
680.0 190.0 67.36
680.0 200.0 67.36
680.0 210.0 67.36
680.0 220.0 67.36
680.0 230.0 67.36
680.0 240.0 67.36
680.0 250.0 67.36
690.0 -250.0 66.88
690.0 -240.0 66.88
690.0 -230.0 66.88
690.0 -220.0 66.88
690.0 -210.0 66.88
690.0 -200.0 66.88
690.0 -190.0 66.88
690.0 -180.0 66.88
690.0 -170.0 66.88
690.0 -160.0 66.88
690.0 -150.0 66.88
690.0 -140.0 66.88
690.0 -130.0 66.88
690.0 -120.0 66.88
690.0 -110.0 66.88
690.0 -100.0 66.88
690.0 -90.0 66.88
690.0 -80.0 66.88
690.0 -70.0 66.88
690.0 -60.0 66.88
690.0 -50.0 66.88
690.0 -40.0 66.88
690.0 -30.0 66.88
690.0 -20.0 66.88
690.0 -10.0 66.88
690.0 0.0 66.88
690.0 10.0 66.88
690.0 20.0 66.88
690.0 30.0 66.88
690.0 40.0 66.88
690.0 50.0 66.88
690.0 60.0 66.88
690.0 70.0 66.88
690.0 80.0 66.88
690.0 90.0 66.88
690.0 100.0 66.88
690.0 110.0 66.88
690.0 120.0 66.88
690.0 130.0 66.88
690.0 140.0 66.88
690.0 150.0 66.88
690.0 160.0 66.88
690.0 170.0 66.88
690.0 180.0 66.88
690.0 190.0 66.88
690.0 200.0 66.88
690.0 210.0 66.88
690.0 220.0 66.88
690.0 230.0 66.88
690.0 240.0 66.88
690.0 250.0 66.88
700.0 -250.0 66.4
700.0 -240.0 66.4
700.0 -230.0 66.4
700.0 -220.0 66.4
700.0 -210.0 66.4
700.0 -200.0 66.4
700.0 -190.0 66.4
700.0 -180.0 66.4
700.0 -170.0 66.4
700.0 -160.0 66.4
700.0 -150.0 66.4
700.0 -140.0 66.4
700.0 -130.0 66.4
700.0 -120.0 66.4
700.0 -110.0 66.4
700.0 -100.0 66.4
700.0 -90.0 66.4
700.0 -80.0 66.4
700.0 -70.0 66.4
700.0 -60.0 66.4
700.0 -50.0 66.4
700.0 -40.0 66.4
700.0 -30.0 66.4
700.0 -20.0 66.4
700.0 -10.0 66.4
700.0 0.0 66.4
700.0 10.0 66.4
700.0 20.0 66.4
700.0 30.0 66.4
700.0 40.0 66.4
700.0 50.0 66.4
700.0 60.0 66.4
700.0 70.0 66.4
700.0 80.0 66.4
700.0 90.0 66.4
700.0 100.0 66.4
700.0 110.0 66.4
700.0 120.0 66.4
700.0 130.0 66.4
700.0 140.0 66.4
700.0 150.0 66.4
700.0 160.0 66.4
700.0 170.0 66.4
700.0 180.0 66.4
700.0 190.0 66.4
700.0 200.0 66.4
700.0 210.0 66.4
700.0 220.0 66.4
700.0 230.0 66.4
700.0 240.0 66.4
700.0 250.0 66.4
710.0 -250.0 65.92
710.0 -240.0 65.92
710.0 -230.0 65.92
710.0 -220.0 65.92
710.0 -210.0 65.92
710.0 -200.0 65.92
710.0 -190.0 65.92
710.0 -180.0 65.92
710.0 -170.0 65.92
710.0 -160.0 65.92
710.0 -150.0 65.92
710.0 -140.0 65.92
710.0 -130.0 65.92
710.0 -120.0 65.92
710.0 -110.0 65.92
710.0 -100.0 65.92
710.0 -90.0 65.92
710.0 -80.0 65.92
710.0 -70.0 65.92
710.0 -60.0 65.92
710.0 -50.0 65.92
710.0 -40.0 65.92
710.0 -30.0 65.92
710.0 -20.0 65.92
710.0 -10.0 65.92
710.0 0.0 65.92
710.0 10.0 65.92
710.0 20.0 65.92
710.0 30.0 65.92
710.0 40.0 65.92
710.0 50.0 65.92
710.0 60.0 65.92
710.0 70.0 65.92
710.0 80.0 65.92
710.0 90.0 65.92
710.0 100.0 65.92
710.0 110.0 65.92
710.0 120.0 65.92
710.0 130.0 65.92
710.0 140.0 65.92
710.0 150.0 65.92
710.0 160.0 65.92
710.0 170.0 65.92
710.0 180.0 65.92
710.0 190.0 65.92
710.0 200.0 65.92
710.0 210.0 65.92
710.0 220.0 65.92
710.0 230.0 65.92
710.0 240.0 65.92
710.0 250.0 65.92
720.0 -250.0 65.44
720.0 -240.0 65.44
720.0 -230.0 65.44
720.0 -220.0 65.44
720.0 -210.0 65.44
720.0 -200.0 65.44
720.0 -190.0 65.44
720.0 -180.0 65.44
720.0 -170.0 65.44
720.0 -160.0 65.44
720.0 -150.0 65.44
720.0 -140.0 65.44
720.0 -130.0 65.44
720.0 -120.0 65.44
720.0 -110.0 65.44
720.0 -100.0 65.44
720.0 -90.0 65.44
720.0 -80.0 65.44
720.0 -70.0 65.44
720.0 -60.0 65.44
720.0 -50.0 65.44
720.0 -40.0 65.44
720.0 -30.0 65.44
720.0 -20.0 65.44
720.0 -10.0 65.44
720.0 0.0 65.44
720.0 10.0 65.44
720.0 20.0 65.44
720.0 30.0 65.44
720.0 40.0 65.44
720.0 50.0 65.44
720.0 60.0 65.44
720.0 70.0 65.44
720.0 80.0 65.44
720.0 90.0 65.44
720.0 100.0 65.44
720.0 110.0 65.44
720.0 120.0 65.44
720.0 130.0 65.44
720.0 140.0 65.44
720.0 150.0 65.44
720.0 160.0 65.44
720.0 170.0 65.44
720.0 180.0 65.44
720.0 190.0 65.44
720.0 200.0 65.44
720.0 210.0 65.44
720.0 220.0 65.44
720.0 230.0 65.44
720.0 240.0 65.44
720.0 250.0 65.44
730.0 -250.0 64.96
730.0 -240.0 64.96
730.0 -230.0 64.96
730.0 -220.0 64.96
730.0 -210.0 64.96
730.0 -200.0 64.96
730.0 -190.0 64.96
730.0 -180.0 64.96
730.0 -170.0 64.96
730.0 -160.0 64.96
730.0 -150.0 64.96
730.0 -140.0 64.96
730.0 -130.0 64.96
730.0 -120.0 64.96
730.0 -110.0 64.96
730.0 -100.0 64.96
730.0 -90.0 64.96
730.0 -80.0 64.96
730.0 -70.0 64.96
730.0 -60.0 64.96
730.0 -50.0 64.96
730.0 -40.0 64.96
730.0 -30.0 64.96
730.0 -20.0 64.96
730.0 -10.0 64.96
730.0 0.0 64.96
730.0 10.0 64.96
730.0 20.0 64.96
730.0 30.0 64.96
730.0 40.0 64.96
730.0 50.0 64.96
730.0 60.0 64.96
730.0 70.0 64.96
730.0 80.0 64.96
730.0 90.0 64.96
730.0 100.0 64.96
730.0 110.0 64.96
730.0 120.0 64.96
730.0 130.0 64.96
730.0 140.0 64.96
730.0 150.0 64.96
730.0 160.0 64.96
730.0 170.0 64.96
730.0 180.0 64.96
730.0 190.0 64.96
730.0 200.0 64.96
730.0 210.0 64.96
730.0 220.0 64.96
730.0 230.0 64.96
730.0 240.0 64.96
730.0 250.0 64.96
740.0 -250.0 64.48
740.0 -240.0 64.48
740.0 -230.0 64.48
740.0 -220.0 64.48
740.0 -210.0 64.48
740.0 -200.0 64.48
740.0 -190.0 64.48
740.0 -180.0 64.48
740.0 -170.0 64.48
740.0 -160.0 64.48
740.0 -150.0 64.48
740.0 -140.0 64.48
740.0 -130.0 64.48
740.0 -120.0 64.48
740.0 -110.0 64.48
740.0 -100.0 64.48
740.0 -90.0 64.48
740.0 -80.0 64.48
740.0 -70.0 64.48
740.0 -60.0 64.48
740.0 -50.0 64.48
740.0 -40.0 64.48
740.0 -30.0 64.48
740.0 -20.0 64.48
740.0 -10.0 64.48
740.0 0.0 64.48
740.0 10.0 64.48
740.0 20.0 64.48
740.0 30.0 64.48
740.0 40.0 64.48
740.0 50.0 64.48
740.0 60.0 64.48
740.0 70.0 64.48
740.0 80.0 64.48
740.0 90.0 64.48
740.0 100.0 64.48
740.0 110.0 64.48
740.0 120.0 64.48
740.0 130.0 64.48
740.0 140.0 64.48
740.0 150.0 64.48
740.0 160.0 64.48
740.0 170.0 64.48
740.0 180.0 64.48
740.0 190.0 64.48
740.0 200.0 64.48
740.0 210.0 64.48
740.0 220.0 64.48
740.0 230.0 64.48
740.0 240.0 64.48
740.0 250.0 64.48
750.0 -250.0 64.0
750.0 -240.0 64.0
750.0 -230.0 64.0
750.0 -220.0 64.0
750.0 -210.0 64.0
750.0 -200.0 64.0
750.0 -190.0 64.0
750.0 -180.0 64.0
750.0 -170.0 64.0
750.0 -160.0 64.0
750.0 -150.0 64.0
750.0 -140.0 64.0
750.0 -130.0 64.0
750.0 -120.0 64.0
750.0 -110.0 64.0
750.0 -100.0 64.0
750.0 -90.0 64.0
750.0 -80.0 64.0
750.0 -70.0 64.0
750.0 -60.0 64.0
750.0 -50.0 64.0
750.0 -40.0 64.0
750.0 -30.0 64.0
750.0 -20.0 64.0
750.0 -10.0 64.0
750.0 0.0 64.0
750.0 10.0 64.0
750.0 20.0 64.0
750.0 30.0 64.0
750.0 40.0 64.0
750.0 50.0 64.0
750.0 60.0 64.0
750.0 70.0 64.0
750.0 80.0 64.0
750.0 90.0 64.0
750.0 100.0 64.0
750.0 110.0 64.0
750.0 120.0 64.0
750.0 130.0 64.0
750.0 140.0 64.0
750.0 150.0 64.0
750.0 160.0 64.0
750.0 170.0 64.0
750.0 180.0 64.0
750.0 190.0 64.0
750.0 200.0 64.0
750.0 210.0 64.0
750.0 220.0 64.0
750.0 230.0 64.0
750.0 240.0 64.0
750.0 250.0 64.0
760.0 -250.0 63.52
760.0 -240.0 63.52
760.0 -230.0 63.52
760.0 -220.0 63.52
760.0 -210.0 63.52
760.0 -200.0 63.52
760.0 -190.0 63.52
760.0 -180.0 63.52
760.0 -170.0 63.52
760.0 -160.0 63.52
760.0 -150.0 63.52
760.0 -140.0 63.52
760.0 -130.0 63.52
760.0 -120.0 63.52
760.0 -110.0 63.52
760.0 -100.0 63.52
760.0 -90.0 63.52
760.0 -80.0 63.52
760.0 -70.0 63.52
760.0 -60.0 63.52
760.0 -50.0 63.52
760.0 -40.0 63.52
760.0 -30.0 63.52
760.0 -20.0 63.52
760.0 -10.0 63.52
760.0 0.0 63.52
760.0 10.0 63.52
760.0 20.0 63.52
760.0 30.0 63.52
760.0 40.0 63.52
760.0 50.0 63.52
760.0 60.0 63.52
760.0 70.0 63.52
760.0 80.0 63.52
760.0 90.0 63.52
760.0 100.0 63.52
760.0 110.0 63.52
760.0 120.0 63.52
760.0 130.0 63.52
760.0 140.0 63.52
760.0 150.0 63.52
760.0 160.0 63.52
760.0 170.0 63.52
760.0 180.0 63.52
760.0 190.0 63.52
760.0 200.0 63.52
760.0 210.0 63.52
760.0 220.0 63.52
760.0 230.0 63.52
760.0 240.0 63.52
760.0 250.0 63.52
770.0 -250.0 63.04
770.0 -240.0 63.04
770.0 -230.0 63.04
770.0 -220.0 63.04
770.0 -210.0 63.04
770.0 -200.0 63.04
770.0 -190.0 63.04
770.0 -180.0 63.04
770.0 -170.0 63.04
770.0 -160.0 63.04
770.0 -150.0 63.04
770.0 -140.0 63.04
770.0 -130.0 63.04
770.0 -120.0 63.04
770.0 -110.0 63.04
770.0 -100.0 63.04
770.0 -90.0 63.04
770.0 -80.0 63.04
770.0 -70.0 63.04
770.0 -60.0 63.04
770.0 -50.0 63.04
770.0 -40.0 63.04
770.0 -30.0 63.04
770.0 -20.0 63.04
770.0 -10.0 63.04
770.0 0.0 63.04
770.0 10.0 63.04
770.0 20.0 63.04
770.0 30.0 63.04
770.0 40.0 63.04
770.0 50.0 63.04
770.0 60.0 63.04
770.0 70.0 63.04
770.0 80.0 63.04
770.0 90.0 63.04
770.0 100.0 63.04
770.0 110.0 63.04
770.0 120.0 63.04
770.0 130.0 63.04
770.0 140.0 63.04
770.0 150.0 63.04
770.0 160.0 63.04
770.0 170.0 63.04
770.0 180.0 63.04
770.0 190.0 63.04
770.0 200.0 63.04
770.0 210.0 63.04
770.0 220.0 63.04
770.0 230.0 63.04
770.0 240.0 63.04
770.0 250.0 63.04
780.0 -250.0 62.56
780.0 -240.0 62.56
780.0 -230.0 62.56
780.0 -220.0 62.56
780.0 -210.0 62.56
780.0 -200.0 62.56
780.0 -190.0 62.56
780.0 -180.0 62.56
780.0 -170.0 62.56
780.0 -160.0 62.56
780.0 -150.0 62.56
780.0 -140.0 62.56
780.0 -130.0 62.56
780.0 -120.0 62.56
780.0 -110.0 62.56
780.0 -100.0 62.56
780.0 -90.0 62.56
780.0 -80.0 62.56
780.0 -70.0 62.56
780.0 -60.0 62.56
780.0 -50.0 62.56
780.0 -40.0 62.56
780.0 -30.0 62.56
780.0 -20.0 62.56
780.0 -10.0 62.56
780.0 0.0 62.56
780.0 10.0 62.56
780.0 20.0 62.56
780.0 30.0 62.56
780.0 40.0 62.56
780.0 50.0 62.56
780.0 60.0 62.56
780.0 70.0 62.56
780.0 80.0 62.56
780.0 90.0 62.56
780.0 100.0 62.56
780.0 110.0 62.56
780.0 120.0 62.56
780.0 130.0 62.56
780.0 140.0 62.56
780.0 150.0 62.56
780.0 160.0 62.56
780.0 170.0 62.56
780.0 180.0 62.56
780.0 190.0 62.56
780.0 200.0 62.56
780.0 210.0 62.56
780.0 220.0 62.56
780.0 230.0 62.56
780.0 240.0 62.56
780.0 250.0 62.56
790.0 -250.0 62.08
790.0 -240.0 62.08
790.0 -230.0 62.08
790.0 -220.0 62.08
790.0 -210.0 62.08
790.0 -200.0 62.08
790.0 -190.0 62.08
790.0 -180.0 62.08
790.0 -170.0 62.08
790.0 -160.0 62.08
790.0 -150.0 62.08
790.0 -140.0 62.08
790.0 -130.0 62.08
790.0 -120.0 62.08
790.0 -110.0 62.08
790.0 -100.0 62.08
790.0 -90.0 62.08
790.0 -80.0 62.08
790.0 -70.0 62.08
790.0 -60.0 62.08
790.0 -50.0 62.08
790.0 -40.0 62.08
790.0 -30.0 62.08
790.0 -20.0 62.08
790.0 -10.0 62.08
790.0 0.0 62.08
790.0 10.0 62.08
790.0 20.0 62.08
790.0 30.0 62.08
790.0 40.0 62.08
790.0 50.0 62.08
790.0 60.0 62.08
790.0 70.0 62.08
790.0 80.0 62.08
790.0 90.0 62.08
790.0 100.0 62.08
790.0 110.0 62.08
790.0 120.0 62.08
790.0 130.0 62.08
790.0 140.0 62.08
790.0 150.0 62.08
790.0 160.0 62.08
790.0 170.0 62.08
790.0 180.0 62.08
790.0 190.0 62.08
790.0 200.0 62.08
790.0 210.0 62.08
790.0 220.0 62.08
790.0 230.0 62.08
790.0 240.0 62.08
790.0 250.0 62.08
800.0 -250.0 61.6
800.0 -240.0 61.6
800.0 -230.0 61.6
800.0 -220.0 61.6
800.0 -210.0 61.6
800.0 -200.0 61.6
800.0 -190.0 61.6
800.0 -180.0 61.6
800.0 -170.0 61.6
800.0 -160.0 61.6
800.0 -150.0 61.6
800.0 -140.0 61.6
800.0 -130.0 61.6
800.0 -120.0 61.6
800.0 -110.0 61.6
800.0 -100.0 61.6
800.0 -90.0 61.6
800.0 -80.0 61.6
800.0 -70.0 61.6
800.0 -60.0 61.6
800.0 -50.0 61.6
800.0 -40.0 61.6
800.0 -30.0 61.6
800.0 -20.0 61.6
800.0 -10.0 61.6
800.0 0.0 61.6
800.0 10.0 61.6
800.0 20.0 61.6
800.0 30.0 61.6
800.0 40.0 61.6
800.0 50.0 61.6
800.0 60.0 61.6
800.0 70.0 61.6
800.0 80.0 61.6
800.0 90.0 61.6
800.0 100.0 61.6
800.0 110.0 61.6
800.0 120.0 61.6
800.0 130.0 61.6
800.0 140.0 61.6
800.0 150.0 61.6
800.0 160.0 61.6
800.0 170.0 61.6
800.0 180.0 61.6
800.0 190.0 61.6
800.0 200.0 61.6
800.0 210.0 61.6
800.0 220.0 61.6
800.0 230.0 61.6
800.0 240.0 61.6
800.0 250.0 61.6
810.0 -250.0 61.12
810.0 -240.0 61.12
810.0 -230.0 61.12
810.0 -220.0 61.12
810.0 -210.0 61.12
810.0 -200.0 61.12
810.0 -190.0 61.12
810.0 -180.0 61.12
810.0 -170.0 61.12
810.0 -160.0 61.12
810.0 -150.0 61.12
810.0 -140.0 61.12
810.0 -130.0 61.12
810.0 -120.0 61.12
810.0 -110.0 61.12
810.0 -100.0 61.12
810.0 -90.0 61.12
810.0 -80.0 61.12
810.0 -70.0 61.12
810.0 -60.0 61.12
810.0 -50.0 61.12
810.0 -40.0 61.12
810.0 -30.0 61.12
810.0 -20.0 61.12
810.0 -10.0 61.12
810.0 0.0 61.12
810.0 10.0 61.12
810.0 20.0 61.12
810.0 30.0 61.12
810.0 40.0 61.12
810.0 50.0 61.12
810.0 60.0 61.12
810.0 70.0 61.12
810.0 80.0 61.12
810.0 90.0 61.12
810.0 100.0 61.12
810.0 110.0 61.12
810.0 120.0 61.12
810.0 130.0 61.12
810.0 140.0 61.12
810.0 150.0 61.12
810.0 160.0 61.12
810.0 170.0 61.12
810.0 180.0 61.12
810.0 190.0 61.12
810.0 200.0 61.12
810.0 210.0 61.12
810.0 220.0 61.12
810.0 230.0 61.12
810.0 240.0 61.12
810.0 250.0 61.12
820.0 -250.0 60.64
820.0 -240.0 60.64
820.0 -230.0 60.64
820.0 -220.0 60.64
820.0 -210.0 60.64
820.0 -200.0 60.64
820.0 -190.0 60.64
820.0 -180.0 60.64
820.0 -170.0 60.64
820.0 -160.0 60.64
820.0 -150.0 60.64
820.0 -140.0 60.64
820.0 -130.0 60.64
820.0 -120.0 60.64
820.0 -110.0 60.64
820.0 -100.0 60.64
820.0 -90.0 60.64
820.0 -80.0 60.64
820.0 -70.0 60.64
820.0 -60.0 60.64
820.0 -50.0 60.64
820.0 -40.0 60.64
820.0 -30.0 60.64
820.0 -20.0 60.64
820.0 -10.0 60.64
820.0 0.0 60.64
820.0 10.0 60.64
820.0 20.0 60.64
820.0 30.0 60.64
820.0 40.0 60.64
820.0 50.0 60.64
820.0 60.0 60.64
820.0 70.0 60.64
820.0 80.0 60.64
820.0 90.0 60.64
820.0 100.0 60.64
820.0 110.0 60.64
820.0 120.0 60.64
820.0 130.0 60.64
820.0 140.0 60.64
820.0 150.0 60.64
820.0 160.0 60.64
820.0 170.0 60.64
820.0 180.0 60.64
820.0 190.0 60.64
820.0 200.0 60.64
820.0 210.0 60.64
820.0 220.0 60.64
820.0 230.0 60.64
820.0 240.0 60.64
820.0 250.0 60.64
830.0 -250.0 60.16
830.0 -240.0 60.16
830.0 -230.0 60.16
830.0 -220.0 60.16
830.0 -210.0 60.16
830.0 -200.0 60.16
830.0 -190.0 60.16
830.0 -180.0 60.16
830.0 -170.0 60.16
830.0 -160.0 60.16
830.0 -150.0 60.16
830.0 -140.0 60.16
830.0 -130.0 60.16
830.0 -120.0 60.16
830.0 -110.0 60.16
830.0 -100.0 60.16
830.0 -90.0 60.16
830.0 -80.0 60.16
830.0 -70.0 60.16
830.0 -60.0 60.16
830.0 -50.0 60.16
830.0 -40.0 60.16
830.0 -30.0 60.16
830.0 -20.0 60.16
830.0 -10.0 60.16
830.0 0.0 60.16
830.0 10.0 60.16
830.0 20.0 60.16
830.0 30.0 60.16
830.0 40.0 60.16
830.0 50.0 60.16
830.0 60.0 60.16
830.0 70.0 60.16
830.0 80.0 60.16
830.0 90.0 60.16
830.0 100.0 60.16
830.0 110.0 60.16
830.0 120.0 60.16
830.0 130.0 60.16
830.0 140.0 60.16
830.0 150.0 60.16
830.0 160.0 60.16
830.0 170.0 60.16
830.0 180.0 60.16
830.0 190.0 60.16
830.0 200.0 60.16
830.0 210.0 60.16
830.0 220.0 60.16
830.0 230.0 60.16
830.0 240.0 60.16
830.0 250.0 60.16
840.0 -250.0 59.68
840.0 -240.0 59.68
840.0 -230.0 59.68
840.0 -220.0 59.68
840.0 -210.0 59.68
840.0 -200.0 59.68
840.0 -190.0 59.68
840.0 -180.0 59.68
840.0 -170.0 59.68
840.0 -160.0 59.68
